ply
format ascii 1.0
comment written by VITAL
element vertex 82
property float x
property float y
property float z
property float nx
property float ny
property float nz
property uchar red
property uchar green
property uchar blue
property uint track_id
property uint observations
end_header
73.2599 115.363 1.39131 0 0 0 255 255 255 0 2
69.9478 114.204 1.7912 0 0 0 255 255 255 1 2
70.8755 94.9027 0.460621 0 0 0 255 255 255 2 2
77.3021 92.7984 0.812612 0 0 0 255 255 255 3 2
74.6511 93.4463 0.745902 0 0 0 255 255 255 4 2
69.5378 36.6767 1.21137 0 0 0 255 255 255 5 2
74.5271 72.13 1.39512 0 0 0 255 255 255 6 3
78.863 89.9104 0.766267 0 0 0 255 255 255 7 2
80.8305 115.662 2.39816 0 0 0 255 255 255 8 2
80.4458 117.237 2.3762 0 0 0 255 255 255 9 2
75.5469 112.338 2.25593 0 0 0 255 255 255 10 2
75.7763 112.733 0.853545 0 0 0 255 255 255 11 2
76.5259 87.0752 2.10747 0 0 0 255 255 255 12 2
-13.9441 -9.07794 0.213253 0 0 0 255 255 255 14 3
39.742 41.9825 1.32346 0 0 0 255 255 255 15 2
29.6851 41.6724 1.2432 0 0 0 255 255 255 16 2
-13.9706 -9.22131 4.8246 0 0 0 255 255 255 17 3
-11.6302 -13.5895 2.66211 0 0 0 255 255 255 18 3
-7.61253 -35.2791 3.8176 0 0 0 255 255 255 19 3
-21.6848 -10.8382 2.3514 0 0 0 255 255 255 21 2
-21.1328 -10.7381 1.40367 0 0 0 255 255 255 22 2
59.0481 -6.46366 3.39576 0 0 0 255 255 255 23 2
48.9015 1.41142 0.769735 0 0 0 255 255 255 24 3
28.3176 -0.267457 0.81846 0 0 0 255 255 255 25 2
-18.1274 -8.75249 2.81406 0 0 0 255 255 255 27 2
1.72543 19.823 0.564346 0 0 0 255 255 255 29 4
5.46524 -18.9937 0.683204 0 0 0 255 255 255 30 3
-1.37732 -7.29236 0.517425 0 0 0 255 255 255 31 2
-0.633556 -10.0839 0.551258 0 0 0 255 255 255 32 2
-7.55966 -35.3077 5.31693 0 0 0 255 255 255 33 3
-11.1788 -34.4287 -0.0408538 0 0 0 255 255 255 34 3
-12.4053 -29.6329 -0.00913024 0 0 0 255 255 255 35 2
-13.5777 -24.8223 0.0490198 0 0 0 255 255 255 36 2
-9.08011 -22.8809 0.00616277 0 0 0 255 255 255 37 2
-10.7627 -22.2368 5.53071 0 0 0 255 255 255 38 2
-10.7651 -22.2536 3.98956 0 0 0 255 255 255 39 2
14.3652 -23.3905 0.750885 0 0 0 255 255 255 41 3
25.4183 3.12477 0.517186 0 0 0 255 255 255 42 2
-10.9101 -21.7474 0.0611733 0 0 0 255 255 255 44 2
-13.5425 -24.8482 1.14246 0 0 0 255 255 255 45 2
-12.3728 -29.63 1.10558 0 0 0 255 255 255 46 3
-11.1854 -34.4199 1.05605 0 0 0 255 255 255 47 4
-14.7856 -30.1987 1.10946 0 0 0 255 255 255 48 3
-14.9912 -29.3787 1.1165 0 0 0 255 255 255 49 3
-15.6365 -30.3929 1.10981 0 0 0 255 255 255 50 3
-13.2195 -29.8381 1.10665 0 0 0 255 255 255 51 3
-14.0404 -70.3204 2.20603 0 0 0 255 255 255 52 2
-38.577 -91.627 1.28387 0 0 0 255 255 255 53 2
-19.9153 -54.3718 0.962248 0 0 0 255 255 255 54 2
-13.6164 -34.9815 1.07193 0 0 0 255 255 255 55 2
4.95937 59.8405 0.169688 0 0 0 255 255 255 57 2
5.23043 97.2976 -0.266385 0 0 0 255 255 255 58 2
-15.9575 -25.4121 1.15591 0 0 0 255 255 255 64 2
-15.9706 -25.3676 0.0318477 0 0 0 255 255 255 65 2
-14.3793 -25.0341 1.15067 0 0 0 255 255 255 66 2
-14.3947 -25.0009 0.0358745 0 0 0 255 255 255 67 2
-12.6014 -22.0562 1.15408 0 0 0 255 255 255 68 2
-13.2766 -22.2244 2.19233 0 0 0 255 255 255 69 2
-14.9504 -22.6077 2.09206 0 0 0 255 255 255 70 2
-16.5511 -22.9628 2.0945 0 0 0 255 255 255 71 2
-14.4739 -35.1794 1.06704 0 0 0 255 255 255 72 2
3.45548 -60.7821 0.301878 0 0 0 255 255 255 73 2
27.8275 0.10445 0.892741 0 0 0 255 255 255 74 2
8.64353 -3.4533 0.485162 0 0 0 255 255 255 75 2
97.3119 67.0473 3.1308 0 0 0 255 255 255 81 2
96.9833 69.3486 3.13771 0 0 0 255 255 255 83 2
70.9637 94.6398 3.28712 0 0 0 255 255 255 87 2
74.5374 72.1588 0.464529 0 0 0 255 255 255 88 3
16.0432 106.148 -0.232758 0 0 0 255 255 255 96 2
-10.9605 -21.7287 4.63899 0 0 0 255 255 255 105 2
8.32138 -2.30554 0.494653 0 0 0 255 255 255 129 2
-11.408 -33.5992 -0.0319515 0 0 0 255 255 255 131 4
-11.3938 -33.5829 1.06042 0 0 0 255 255 255 132 4
-12.584 -28.7955 1.1154 0 0 0 255 255 255 133 3
-13.7474 -23.9984 1.13649 0 0 0 255 255 255 135 2
-12.4219 -15.8349 1.49097 0 0 0 255 255 255 138 2
-12.6298 -14.9529 1.48607 0 0 0 255 255 255 139 2
-11.8137 -18.1483 1.22479 0 0 0 255 255 255 140 3
-13.0988 -12.779 1.29837 0 0 0 255 255 255 141 3
-11.8358 -18.1254 2.20483 0 0 0 255 255 255 143 3
-10.7122 -35.1293 -0.104521 0 0 0 255 255 255 146 3
28.7895 39.6295 1.33726 0 0 0 255 255 255 154 2
